0.148291 0.381601 0.164743 -0.478184 -0.875969 -0.0633937
0.112868 0.21968 0.162746 0.184965 -0.661386 0.726882
0.154645 0.435016 0.30183 -0.620564 0.731353 -0.282882
-0.123417 0.162963 0.146957 -0.0274496 0.260186 0.965168
0.167456 -0.0879698 0.132462 -0.355899 0.88705 0.294072
0.127884 0.221509 0.169827 -0.0572244 -0.896997 0.438317
0.112323 0.385013 0.154046 -0.066249 -0.991297 -0.113764
0.154612 0.433234 0.302668 -0.620564 0.731353 -0.282882
-0.148842 0.382927 0.156937 -0.419206 0.906215 0.0551384
-0.131659 0.216744 0.143386 0.110249 -0.535759 0.837142
-0.0797588 0.103248 0.233978 0.251276 -0.513288 -0.820607
-0.0704757 0.202777 0.149112 -0.505272 -0.329519 0.79757
-0.145836 0.0958781 0.260329 0.212599 0.309177 0.926936
-0.0634826 0.0890974 0.26757 0.521974 -0.544314 -0.656707
-0.0442511 0.073585 0.305284 0.781105 -0.0758051 -0.619781
0.134121 0.378732 0.136041 0.324743 0.945798 -0.00292904
0.0715177 0.212027 0.173922 -0.825422 0.483834 -0.290833
-0.129406 0.38757 0.162957 0.167683 -0.985447 0.0278539
-0.107246 0.160343 0.15093 -0.176513 0.373037 0.910871
0.147797 0.102176 0.255607 -0.187292 0.415207 0.890239
-0.169686 0.363491 0.171014 0.749151 -0.645361 -0.149273
-0.166377 0.0615306 0.264727 -0.0610638 -0.208766 0.976057
-0.0754659 0.134985 0.217597 0.517033 -0.567161 -0.641097
-0.0708549 0.0973123 0.240772 0.445522 -0.563973 -0.695302
0.10769 -0.217709 0.0750436 -0.405477 0.852341 0.330309
-0.146476 -0.138637 0.208496 0.660401 0.692711 -0.289865
0.136859 -0.207563 0.0751079 0.330196 -0.884095 -0.330675
0.104668 0.155315 0.157178 -0.297233 -0.676865 -0.673429
-0.0733184 0.213722 0.173456 -0.686128 -0.564489 0.45889
0.167669 0.360807 0.161795 0.655388 0.748069 0.104207
0.0868903 0.20824 0.269793 0.143123 -0.565773 0.812045
-0.0755908 0.140913 0.207731 0.544622 -0.633174 -0.54998
0.062223 0.219742 0.274013 -0.0171619 -0.370471 0.928686
0.182119 -0.0538804 0.218118 0.748375 -0.323046 0.579289
0.103131 -0.220623 0.0804323 -0.577156 0.786266 0.220629
-0.0127289 0.246089 0.255216 -0.206993 -0.131481 -0.969467
0.128918 -0.203591 0.0686788 -0.409478 0.875245 0.257437
0.122542 -0.206075 0.0613433 -0.574845 0.818001 -0.0206712
0.0824426 0.182852 0.140674 0.489967 0.0921893 0.866853
-0.113347 0.111505 0.230049 -0.125614 -0.493772 -0.860471
0.088762 0.2159 0.151846 0.419564 -0.471397 0.775727
0.115245 -0.237919 0.11089 -0.346839 0.84317 0.410813
0.156596 -0.081296 0.126789 -0.355899 0.88705 0.294072
-0.090403 0.197948 0.263465 -0.0974693 -0.609258 0.786959
0.0517511 0.132699 0.247644 0.682427 0.368426 0.631312
-0.107791 -0.0856663 0.123039 0.0967005 0.373486 0.922582
0.183694 0.0734134 0.265248 0.166239 -0.171283 0.971096
0.0734321 0.199923 0.147895 0.537063 -0.355327 0.765053
-0.0978928 0.15209 0.162578 0.403459 -0.70184 -0.587062
0.139597 -0.0821444 0.12874 -0.555829 0.663739 0.500506
0.175636 0.446269 0.292951 -0.641499 0.706423 -0.299075
-0.172322 0.486825 0.318098 0.67633 0.62358 -0.392079
-0.176572 0.483719 0.314416 0.67633 0.62358 -0.392079
0.101187 -0.22578 0.0914323 -0.577156 0.786266 0.220629
0.140063 -0.22056 0.0937308 -0.356655 0.884902 0.299575
-0.15453 0.0112766 0.235652 -0.163673 -0.400746 0.901451
0.163047 -0.0300657 0.234318 -0.479459 0.0934309 -0.872577
-0.0931678 -0.134847 0.256565 -0.584778 -0.618624 0.524727
0.125108 -0.139889 0.200443 -0.537936 0.830543 -0.144303
0.101267 -0.221966 0.0760114 -0.577156 0.786266 0.220629
-0.0177055 0.0716938 0.365504 0.457172 -0.193744 -0.868019
-0.124986 0.39388 0.180453 0.0721822 -0.991743 -0.105995
-0.134697 -0.00565273 0.233996 0.261635 0.151934 -0.953133
-0.106931 0.220077 0.163654 -0.162001 -0.724748 0.669699
0.108028 -0.128348 0.258879 0.614476 -0.478724 0.627091
-0.160979 0.471585 0.33804 0.704237 0.622761 -0.34091
0.106563 0.20344 0.246912 0.323859 -0.900973 0.288728
-0.141835 0.00331422 0.233654 0.228053 0.230951 -0.945861
-0.0860205 -0.153794 0.232965 -0.523243 -0.808747 0.268598
-0.175776 0.353478 0.183746 0.781999 -0.532627 -0.323707
0.0551779 0.074348 0.306545 0.745301 0.0530523 0.664614
-0.167941 0.0817717 0.268436 -0.0647055 0.128366 0.989614
0.070122 0.353425 0.210317 -0.169629 0.754197 0.63436
0.128201 0.152107 0.159427 0.125639 -0.763738 -0.633182
0.189762 0.0452792 0.260218 -0.14563 0.308117 -0.940136
0.122347 -0.226893 0.0548892 -0.742039 0.615109 -0.266494
-0.0915446 -0.147865 0.20749 0.527734 0.843436 -0.100564
-0.133401 0.385372 0.149174 0.189928 -0.980855 -0.0430243
0.163923 -0.0124303 0.232185 -0.393476 0.20596 -0.895967
0.0846172 0.216693 0.187866 -0.694229 0.719243 0.0271148
-0.121888 -0.061903 0.168164 -0.332356 0.929063 -0.162426
0.0205992 0.0806108 0.364819 -0.356483 -0.424198 -0.832452
-0.169122 0.366889 0.204619 -0.701589 0.600715 0.383294
0.179329 0.00190905 0.233226 -0.382167 0.33684 -0.860515
-0.175252 0.0418496 0.256925 -0.144866 -0.368201 0.918391
-0.0938311 -0.139499 0.256552 -0.584778 -0.618624 0.524727
0.138329 -0.0786469 0.128382 -0.555829 0.663739 0.500506
-0.172996 0.489022 0.31937 0.67633 0.62358 -0.392079
0.0996175 0.219234 0.176226 0.381085 -0.655534 0.651958
0.0748459 0.336845 0.227221 -0.0817073 0.696661 0.712733
-0.10573 0.198615 0.246955 -0.458174 -0.754836 0.46936
0.107125 -0.146174 0.207135 -0.643907 0.755397 -0.121487
0.0623982 0.350152 0.20894 -0.177609 0.752931 0.633679
-0.0946106 0.211637 0.184121 -0.60215 -0.564984 0.5641
-0.00180703 0.251677 0.251146 -0.0947048 -0.104111 -0.990046
-0.171001 -0.0658223 0.19127 -0.945731 -0.324796 -0.00998781
-0.0857146 -0.129707 0.261171 -0.514152 -0.308437 0.800322
0.12693 -0.0933179 0.127229 -0.252206 0.550038 0.796147
0.0967866 -0.221916 0.0888265 -0.577156 0.786266 0.220629
0.0905099 0.3776 0.17276 0.133479 -0.923778 -0.358912
0.0716899 0.361471 0.1932 -0.19602 0.835709 0.512998
-0.0490766 0.231686 0.273007 0.168759 -0.117871 0.978584
0.080014 0.329915 0.235916 0.0188957 -0.712858 -0.701054
0.104798 0.383621 0.140252 -0.0914675 -0.991278 -0.094874
0.115897 0.387885 0.181169 0.0410945 -0.955417 -0.292386
-0.111589 0.393178 0.179559 -0.111173 -0.989795 -0.0891472
0.130759 0.122789 0.235613 -0.0904866 0.59809 0.796304
0.176211 0.0878212 0.266688 0.045462 0.143656 0.988583
-0.111014 -0.14397 0.194448 0.387588 0.914557 -0.115594
0.110114 0.207983 0.250227 0.380248 -0.812109 0.442595
0.141507 -0.0758005 0.126977 0.425858 -0.801977 -0.418901
-0.186278 0.0566738 0.263215 0.345881 0.261753 -0.901028
-0.117546 -0.209993 0.0669102 -0.36567 -0.870998 -0.328098
0.0915285 0.324286 0.243526 -0.0433611 0.608079 0.792691
0.0638297 0.335269 0.222725 -0.232046 0.682161 0.693406
-0.144948 0.39612 0.193378 0.339117 -0.910745 -0.235675
0.129649 0.389193 0.180211 -0.165105 -0.970247 -0.17709
-0.0221201 0.146469 0.258009 -0.24836 -0.139656 0.958548
0.199545 0.0641302 0.258819 -0.417446 0.227013 -0.879889
-0.0943454 0.328866 0.247295 0.149841 0.383811 0.911173
0.0999062 0.344283 0.239998 -0.213231 0.373041 0.90298
0.0776662 0.371319 0.181255 -0.174752 0.881604 0.438448
0.13672 -0.0615486 0.162273 0.341006 0.931823 -0.124178
-0.152725 -0.0296246 0.234988 0.474244 0.0943301 -0.875326
-0.184584 0.0789995 0.264912 -0.237208 -0.0601648 0.969594
-0.111045 0.209333 0.248304 -0.386624 -0.76218 0.519233
0.172982 0.357276 0.182505 -0.675473 -0.633197 -0.377886
-0.101195 0.207717 0.265261 -0.211581 -0.421861 0.881628
0.145917 -0.193851 0.0462628 -0.592752 0.804856 -0.0291833
-0.115214 -0.237489 0.107131 0.330366 0.860809 0.387125
-0.0618604 -0.156691 0.249376 -0.232445 -0.896572 0.376998
-0.0068288 0.088719 0.35965 0.456033 -0.388346 -0.800763
-0.111991 0.38562 0.154393 0.00256239 -0.997232 -0.0743069
0.109903 0.322786 0.244368 -0.106786 -0.747812 -0.655266
0.0946898 -0.231804 0.0987608 -0.438208 0.84943 0.294011
-0.173132 0.454213 0.290519 0.67633 0.62358 -0.392079
-0.0312328 0.0788656 0.345161 0.766536 -0.317555 -0.558194
0.107349 0.206056 0.259847 0.246168 -0.524098 0.815305
0.0857158 0.378386 0.160607 0.0941776 -0.946708 -0.308017
-0.180942 0.0934247 0.262153 0.0407562 0.148779 0.98803
0.200872 0.035378 0.246739 -0.409281 0.406219 -0.816991
-0.170674 0.347418 0.207993 -0.738903 0.434014 0.515417
0.101073 -0.13161 0.260355 0.558518 -0.562315 0.609802
0.216859 0.140042 0.184677 -0.487321 -0.418437 -0.766439
-0.116204 -0.21264 0.0603239 -0.36567 -0.870998 -0.328098
0.167971 0.357197 0.140855 0.63833 0.764905 0.0863451
-0.0964612 -0.221494 0.0815775 0.308859 0.873808 0.375586
-0.226243 0.151677 0.170869 0.520372 -0.433317 -0.735832
-0.0680554 0.332402 0.234529 0.303156 0.610462 0.731733
0.157277 0.381055 0.187037 -0.41639 -0.794498 -0.442031
-0.156104 0.109825 0.259113 0.114511 0.352274 0.928865
-0.0791611 0.328112 0.243154 0.175825 0.545231 0.819639
0.0979503 -0.127522 0.262172 0.535224 -0.46843 0.702929
0.129491 0.143521 0.180731 0.0809376 -0.877143 -0.473359
0.144451 0.386285 0.186564 -0.389079 -0.8577 -0.336108
-0.147883 0.218158 0.219695 -0.148341 0.985896 -0.0774832
0.0931602 0.313845 0.247795 -0.0567631 0.54536 0.836278
-0.1251 0.121822 0.234666 0.161323 0.613369 0.773145
0.0713167 0.321343 0.236438 -0.182974 0.554688 0.811691
-0.0941803 -0.221296 0.0785381 -0.327939 -0.876582 -0.352223
-0.172494 -0.0468971 0.219044 0.63969 0.254353 -0.725328
-0.203587 0.0654512 0.254354 0.515146 0.143157 -0.845062
-0.161145 -0.0285041 0.232124 0.487236 0.0895952 -0.868662
-0.17727 0.00243239 0.230939 0.276684 0.369261 -0.887182
-0.0543287 -0.159589 0.260611 -0.195768 -0.851052 0.487222
0.0906304 -0.232817 0.103812 0.356345 -0.866971 -0.348395
-0.11473 0.340831 0.249999 -0.0202862 0.392774 0.919411
-0.160802 0.452497 0.284058 0.67633 0.62358 -0.392079
-0.0594892 0.352409 0.218423 0.333348 0.716256 0.613072
0.144005 -0.199409 0.0334991 -0.611076 0.790115 0.0479947
-0.0929671 0.382641 0.1708 -0.178751 -0.961234 -0.209946
0.0146566 -0.0871591 0.142639 -0.0935227 0.188599 -0.977591
-0.166733 -0.0102059 0.228348 -0.318179 -0.266021 0.909942
-0.0540483 0.0918691 0.276126 0.552869 -0.513044 -0.656598
0.060816 0.0939826 0.272393 -0.581558 -0.548449 -0.600828
0.0642996 0.370199 0.176435 -0.16785 0.854945 0.490811
0.113095 -0.0419245 0.244274 -0.295786 0.0532733 -0.953767
0.0550224 0.354133 0.195987 0.150924 -0.784863 -0.601009
0.00149678 -0.159663 0.27527 -0.0172576 -0.821732 0.569613
0.157543 -0.183076 0.0245728 -0.652255 0.755976 0.0553561
-0.130442 0.336449 0.245714 -0.276183 0.270578 0.922231
0.114438 -0.246576 0.128496 -0.365586 0.874224 0.319498
-0.143645 0.336285 0.235989 -0.537374 0.234632 0.810047
0.00223129 -0.10265 0.141921 0.0465863 -0.0661177 -0.996724
-0.0899653 -0.230627 0.092267 0.439516 0.838064 0.323226
-0.10622 0.320565 0.250203 0.0424016 0.394218 0.918038
0.183714 -0.0474754 0.18833 0.896386 -0.367703 0.247562
-0.152609 0.393582 0.206034 -0.547078 0.765967 0.337639
-0.000580913 -0.079367 0.148909 0.142677 0.417079 -0.897601
0.163245 -0.181229 0.0473377 -0.592884 0.797189 0.113925
0.12102 -0.136727 0.172202 0.562203 -0.696966 -0.445158
0.121165 -0.0828966 0.126889 -0.252206 0.550038 0.796147
0.004902 -0.113535 0.145323 -0.142193 -0.0252649 -0.989517
0.0464904 0.340267 0.207853 0.211965 -0.730446 -0.649246
-0.198312 0.0877377 0.25839 0.484626 -0.149289 -0.861888
0.0185297 -0.121889 0.148356 0.0654637 0.356584 0.931967
0.129977 0.136627 0.218477 0.0444578 -0.753702 -0.65571
0.12001 0.317628 0.244356 -0.130602 -0.754495 -0.64318
0.169088 0.106921 0.261669 -0.106607 0.33216 0.937179
0.182479 -0.0256547 0.224039 -0.534194 0.224415 -0.81503
-0.167229 0.490781 0.335334 0.704237 0.622761 -0.34091
-0.09275 -0.0508474 0.249567 0.346866 0.0458418 -0.936794
-0.143934 -0.204597 0.0787472 -0.394192 -0.855132 -0.336692
-0.134928 -0.198722 0.0548406 -0.420379 -0.874621 -0.241495
0.127638 0.32613 0.244757 0.232396 -0.0727513 0.969896
0.163904 0.376102 0.195727 0.498247 0.722619 0.479136
-0.0426806 -0.133827 0.271533 -0.137095 -0.890466 0.433907
0.0295412 -0.148045 0.274864 0.0661138 -0.878888 0.472425
0.073284 -0.158076 0.250696 0.277179 -0.798932 0.533741
0.0328628 0.0889129 0.343919 0.669731 0.441078 0.59742
-0.106744 -0.140408 0.168719 -0.465009 -0.791854 -0.395897
0.1074 0.220649 0.196171 -0.295755 0.95263 0.0708892
0.175392 0.33894 0.188428 -0.733147 -0.548606 -0.401903
-0.128537 0.146236 0.170698 -0.16003 -0.835612 -0.525494
0.196439 0.0860867 0.261519 -0.422628 -0.161342 -0.891827
-0.0841493 0.316942 0.248371 -0.17855 -0.410915 -0.894018
-0.0544015 -0.16767 0.24301 -0.25879 -0.907289 0.331442
-0.114014 0.221396 0.182491 -0.0566393 -0.944621 0.323238
-0.17434 0.334296 0.198484 -0.803581 0.385416 0.453555
-0.145501 0.435245 0.319358 0.704237 0.622761 -0.34091
-0.106915 0.216934 0.268901 -0.265665 -0.383999 0.884289
-0.114891 0.142796 0.187545 -0.133246 0.845396 0.517254
-0.163244 0.336288 0.222402 0.655185 -0.317601 -0.685465
0.178256 0.341602 0.163648 -0.876698 -0.456643 -0.151256
0.0144439 0.259186 0.249605 0.0455903 -0.204214 -0.977864
0.15822 0.327584 0.220217 -0.522867 -0.475178 -0.707684
-0.00544079 -0.0906589 0.142624 0.0465863 -0.0661177 -0.996724
-0.053062 0.339597 0.221488 0.341229 0.709672 0.616383
0.164913 -0.194195 0.0733583 0.463383 -0.821187 -0.333059
0.11334 0.309732 0.248064 0.0719728 0.538346 0.839645
0.0241846 -0.129298 0.158379 0.145459 0.667892 0.729905
0.0328553 -0.158111 0.268717 0.0237765 -0.83828 0.544722
-0.196738 0.0354033 0.247432 0.348854 0.410001 -0.842734
-0.00687337 -0.124074 0.15029 0.0401557 0.54195 0.839451
-0.00593772 -0.163528 0.241909 -0.0185739 -0.96032 0.27828
0.180698 -0.17222 0.0442714 -0.504179 0.834799 0.221164
0.132535 -0.152862 0.181052 0.584526 -0.72227 0.36967
-0.0648859 0.36484 0.195199 0.323358 0.81564 0.479761
0.136812 0.207653 0.230502 0.00475685 -0.994207 -0.107379
0.0703546 0.378282 0.155973 0.103875 -0.922463 -0.37185
0.171464 0.333554 0.205348 -0.576945 -0.575615 -0.579484
-0.144834 -0.194474 0.0646152 -0.468089 -0.832018 -0.297724
0.149319 0.322691 0.232556 0.383752 0.498236 0.777493
0.135788 0.318942 0.24122 0.255677 0.599063 0.758784
-0.00533016 -0.144772 0.285177 -0.0428216 -0.813672 0.579745
0.120906 0.383402 0.116821 0.257936 0.955726 0.141619
-0.0280897 -0.15348 0.27983 -0.0876576 -0.82907 0.552231
-0.0578833 -0.149455 0.201288 0.189401 0.981778 0.0155012
-0.165627 0.496127 0.333649 0.704237 0.622761 -0.34091
-0.0905675 -0.224227 0.065827 0.524172 0.829004 0.194926
-0.121991 0.210961 0.254607 -0.529431 -0.54911 0.646669
-0.125071 0.316418 0.247278 -0.257337 0.114569 0.959506
-0.180376 0.112287 0.25489 -0.223117 0.556019 0.800663
0.123384 0.219491 0.24732 0.309847 -0.909312 0.277751
-0.0818184 -0.230698 0.0800096 -0.184824 -0.905545 -0.381876
0.195734 -0.00289627 0.221218 -0.476258 0.333062 -0.813786
0.115094 -0.252294 0.135455 -0.224642 0.931744 0.285287
-0.116692 -0.218256 0.0458497 -0.430059 -0.876396 -0.216748
-0.0781012 0.237225 0.276961 -0.101158 -0.111472 0.988606
0.193921 -0.153323 0.0216965 -0.625978 0.720402 0.298617
0.0378014 -0.0918989 0.142017 0.036246 -0.108923 0.993389
0.177098 -0.161189 0.0176156 -0.667911 0.722556 0.178346
-0.0761035 0.375333 0.17585 -0.216502 -0.913753 -0.343775
-0.0617213 0.318426 0.237903 0.291449 0.506172 0.811694
0.157567 -0.186626 0.0100433 -0.652255 0.755976 0.0553561
-0.0540737 0.360891 0.203506 0.28484 0.787127 0.54708
-0.136342 -0.233848 0.114417 0.385154 0.839873 0.382451
0.0612747 -0.137441 0.273139 0.221407 -0.671199 0.70744
0.202727 -0.163763 0.0436668 -0.590915 0.736836 0.328468
0.214627 0.0713614 0.248012 -0.530756 0.11464 -0.839736
-0.191443 0.248615 0.177129 0.658741 0.111046 -0.74413
-0.166991 0.497783 0.332624 0.704237 0.622761 -0.34091
0.0213132 -0.0658243 0.157267 -0.176046 0.576989 -0.797553
-0.0831713 0.382188 0.161173 -0.192838 -0.940868 -0.278534
0.107135 -0.126827 0.140375 -0.167294 0.658679 0.73359
-0.113651 -0.250738 0.129825 0.283041 0.910335 0.301956
0.108257 -0.144705 0.176932 0.309859 -0.908984 -0.278813
-0.164096 0.227661 0.224554 -0.737634 -0.0253558 0.674725
-0.143696 0.391047 0.220969 -0.494832 0.739796 0.455899
0.157921 -0.228734 0.114542 -0.398913 0.822616 0.405181
-0.0931079 -0.130795 0.137095 0.21419 0.681074 0.700186
-0.0345521 -0.152866 0.221154 0.063295 0.993722 -0.0922468
0.117259 -0.141611 0.154542 0.169859 -0.650952 -0.739871
-0.102184 -0.141777 0.152294 -0.195556 -0.680135 -0.706523
-0.04653 0.11593 0.250157 0.637834 -0.479434 -0.602753
0.0818597 -0.220416 0.0819676 0.0604546 -0.871871 -0.48599
-0.170466 0.370029 0.136143 -0.627106 0.773939 0.0880714
-0.162955 0.494789 0.339231 0.704237 0.622761 -0.34091
-0.00140183 -0.121444 0.277333 -0.0657338 -0.540127 0.839013
-0.0903317 -0.148595 0.184348 0.401637 0.91552 0.0226034
-0.085819 0.305673 0.249903 0.142037 0.381045 0.913581
-0.13386 0.190987 0.238391 -0.587745 -0.174053 0.790102
-0.142608 0.314891 0.23737 -0.505654 0.0473695 0.861435
-0.112616 0.305345 0.24778 -0.150574 0.242941 0.958284
0.0562633 -0.121191 0.143504 0.0646639 0.499158 0.864095
-0.121749 0.150683 0.228636 -0.348322 0.285366 -0.892882
-0.194915 0.111585 0.249611 0.466227 -0.465206 -0.752473
-0.044917 0.333962 0.218799 -0.278612 -0.685524 -0.672631
0.078181 -0.146171 0.188445 -0.115887 0.920645 0.372805
0.1424 0.377929 0.11072 0.445431 0.891497 0.082613
0.033772 -0.134924 0.284938 0.120945 -0.807991 0.576648
-0.155729 0.134947 0.228448 0.00147786 -0.718021 -0.69602
-0.07438 -0.223237 0.0843461 -0.0593128 -0.889362 -0.45334
-0.151363 -0.185791 0.0478907 -0.497442 -0.838173 -0.223645
0.147723 -0.247077 0.132216 -0.462921 0.826244 0.320974
-0.123623 0.218439 0.258483 -0.541704 -0.341994 0.767852
-0.0717067 -0.231255 0.0887181 -0.0953324 -0.832133 -0.546321
0.116025 0.220599 0.267656 0.263369 -0.497846 0.826309
-0.0945916 0.361651 0.252818 0.212559 0.602659 0.769169
-0.0956412 -0.256784 0.130574 0.284076 0.916258 0.282439
-0.0307132 -0.12344 0.27875 -0.110366 -0.839321 0.532315
0.063464 -0.172722 0.243736 0.225367 -0.60655 0.762435
-0.170687 0.500787 0.329682 0.67633 0.62358 -0.392079
-0.0140617 0.101085 0.344296 -0.618144 0.453716 0.641903
0.0179035 0.101694 0.354024 -0.259389 -0.470998 -0.843136
-0.0513597 0.250374 0.270765 0.096641 0.0628047 0.993336
0.0299012 -0.14118 0.172648 0.140837 0.695579 0.704511
0.132767 0.194816 0.242848 0.431943 -0.196683 0.880194
-0.16858 -0.186504 0.0676858 0.575043 0.770264 0.275716
0.0395843 -0.0814437 0.144531 0.0281255 -0.284091 0.958385
0.143279 0.310775 0.238768 0.364416 0.382253 0.849166
0.0714218 -0.127258 0.270536 0.388713 -0.396381 0.831735
0.101286 -0.0546444 0.249357 0.02476 0.0842909 -0.996134
0.173599 0.222302 0.225266 0.353617 0.935088 0.023757
-0.1597 0.320278 0.222654 0.599335 -0.145128 -0.787233
-0.0718501 -0.222806 0.0836832 -0.0593128 -0.889362 -0.45334
-0.135842 0.230003 0.239677 -0.73765 -0.14761 0.658851
-0.0634324 0.370534 0.180649 0.316564 0.864817 0.389716
0.169139 0.138475 0.219825 -0.0176735 0.744453 0.66744
-0.014572 -0.13688 0.162762 0.0978216 -0.725512 -0.681222
-0.0483379 0.355976 0.193393 -0.194826 -0.773913 -0.60258
0.0770282 -0.167997 0.208736 -0.319439 0.947092 -0.0312289
0.0515334 -0.0984274 0.137004 0.122025 0.215694 0.968807
0.191393 0.110518 0.254184 -0.255344 -0.517504 -0.816694
0.042436 0.310855 0.230709 -0.276133 0.526419 0.804136
0.162949 0.315447 0.220904 -0.709036 -0.203869 -0.675059
0.0200412 -0.0504288 0.254183 -0.272896 0.871522 -0.407403
-0.166164 0.500192 0.336552 0.704237 0.622761 -0.34091
0.0082346 -0.162224 0.230807 0.0126836 -0.981962 0.188654
-0.13567 -0.242938 0.133979 0.469125 0.824267 0.317026
0.0966877 -0.0585951 0.241372 -0.0678524 -0.00566885 -0.997679
0.206224 0.223209 0.128858 0.148094 0.649043 0.746198
0.165822 0.21774 0.232726 0.256811 0.966443 0.0060722
0.0418844 -0.122471 0.280191 0.171161 -0.338225 0.925369
0.173578 0.318633 0.198394 -0.814217 -0.277 -0.510217
0.198961 -0.18333 0.0805035 0.557919 -0.784425 -0.270933
-0.174392 -0.167612 0.0364742 0.564641 0.793867 0.225732
-0.081184 -0.0534806 0.254818 0.172238 0.175418 -0.969311
0.137848 0.228079 0.241958 0.0845598 -0.988975 0.121566
0.220451 -0.154038 0.0480212 -0.63014 0.712487 0.308682
-0.206383 0.115279 0.233785 0.543404 -0.506385 -0.669542
0.0593515 0.252481 0.268054 -0.0736622 0.0978975 0.992467
-0.216214 0.051185 0.233767 0.619163 0.255793 -0.742434
0.182364 0.324981 0.176512 -0.859318 -0.415212 -0.298617
0.16644 -0.173301 -0.00389157 -0.763521 0.640476 0.0826231
-0.206083 0.0253993 0.222724 0.47893 0.410695 -0.775858
-0.180808 0.355468 0.141537 -0.714574 0.691306 0.107142
-0.0199229 -0.144303 0.176336 0.106165 -0.773821 -0.624444
0.0225664 -0.121615 0.286223 0.0540854 -0.294272 0.95419
-0.0788051 -0.0573223 0.255939 0.262859 0.053386 -0.963356
0.010341 -0.125317 0.289556 -0.0364973 -0.570345 0.820594
-0.219478 0.0777127 0.239353 0.639461 -0.110297 -0.760871
0.219368 0.0359871 0.225361 -0.529507 0.373521 -0.761646
0.0810703 0.245135 0.27391 0.0202532 0.0254959 0.99947
0.0833391 -0.146182 0.164702 0.0204963 -0.708182 -0.705732
0.11507 0.276001 0.253055 -0.30473 -0.120784 -0.944749
-0.184132 -0.190466 0.0861125 0.579456 0.782893 0.226514
-0.00997082 0.271465 0.247316 -0.066783 -0.291878 -0.954121
-0.0895171 -0.148053 0.166009 -0.0749291 -0.836782 -0.542385
0.0926444 -0.142444 0.152143 0.0852837 -0.736096 -0.671483
-0.185601 -0.0335898 0.199786 0.666993 0.474188 -0.574688
0.0921896 -0.263195 0.0630815 -0.779731 0.486832 -0.393717
-0.19367 -0.153344 0.0301129 0.628015 0.725819 0.280685
0.242237 0.172707 0.147623 0.666241 0.419813 0.616344
-0.080191 -0.0758266 0.135837 -0.133975 0.0641065 0.988909
-0.0211573 -0.120595 0.285903 -0.102423 -0.821206 0.561365
0.13574 -0.257966 0.154947 -0.373595 0.921858 0.102983
-0.0115228 -0.14423 0.208474 -0.0742754 0.986874 0.1434
0.0828434 0.389798 0.126701 0.0395292 0.931703 0.361063
0.207372 0.111927 0.238469 -0.492087 -0.494279 -0.716616
-0.140702 -0.196118 0.019926 0.575003 0.813248 0.0894366
-0.114791 0.264735 0.254002 0.423122 -0.0644894 -0.903775
-0.0409241 -0.0965561 0.138102 -0.0618476 0.158136 0.985479
0.0359425 -0.143592 0.198772 -0.099688 -0.931378 -0.350139
0.172332 -0.162082 -0.0258771 -0.815486 0.567881 0.111775
-0.166197 0.253039 0.208773 0.70602 0.231122 -0.669416
0.134518 -0.235176 0.0255038 0.81179 -0.354115 0.464327
0.109605 -0.261235 0.175796 -0.379841 0.91251 -0.151814
0.169324 -0.169674 -0.028078 -0.815486 0.567881 0.111775
-0.0691928 -0.147947 0.165773 -0.0162905 -0.84408 -0.53597
-0.116946 -0.261946 0.15388 0.304112 0.94805 0.0933614
0.00988142 -0.177254 0.233313 -0.0534071 -0.955718 0.289398
-0.171175 -0.159277 0.0168039 0.61633 0.746784 0.249902
-0.0774468 -0.143451 0.152745 -0.095455 -0.807457 -0.582152
0.0192716 0.353296 0.186213 0.0322975 -0.784639 -0.619111
-0.152541 -0.177461 0.0144995 0.593462 0.780728 0.195621
-0.131802 0.450037 0.277695 0.673036 0.630485 -0.386666
0.231558 -0.145912 0.0504098 -0.629657 0.701963 0.332837
-0.193527 0.325867 0.179549 0.873279 -0.293234 -0.389099
-0.0298248 -0.0718932 0.151368 -0.152717 -0.375772 0.914042
0.175673 -0.223127 0.12024 -0.608784 0.760052 0.227382
0.0955681 -0.195606 0.215254 -0.638505 0.123007 -0.759724
-0.0950506 -0.266349 0.174075 -0.346571 -0.916873 0.198074
0.0201553 0.277567 0.243991 0.0879092 -0.346928 -0.933763
0.142745 -0.248744 0.172305 -0.562721 0.814071 -0.143644
-0.0667414 -0.264242 0.119246 0.22893 0.929968 0.287665
-0.0619428 0.380489 0.158954 -0.129579 -0.900581 -0.414925
-0.133648 -0.248595 0.168684 -0.538265 -0.821516 0.188102
-0.0148613 -0.0544606 0.168953 -0.0437848 -0.596688 0.801278
0.16323 0.36948 0.101227 0.52733 0.835495 0.1545
-0.16262 -0.233843 0.13179 0.558592 0.805596 0.197458
-0.23323 0.211171 0.146021 0.40046 -0.177683 -0.898922
-0.110963 0.380037 0.249351 0.0519668 -0.179446 -0.982394
-0.221715 0.119144 0.194896 0.756915 -0.40998 -0.508917
0.030515 0.367638 0.171494 0.0962554 -0.839756 -0.534363
0.214089 -0.170802 0.0787975 -0.583711 0.7918 0.179818
0.198834 -0.131332 -0.0143441 -0.72129 0.618592 0.311585
-0.137564 0.423738 0.309827 0.704237 0.622761 -0.34091
0.226976 0.0668929 0.228725 0.782106 -0.0949532 0.615869
-0.137331 -0.218616 0.176052 0.670123 0.181323 -0.719761
-0.0724154 -0.196805 0.22355 0.716083 0.198493 -0.669198
-0.00116596 0.325482 0.211414 0.0156059 0.572718 0.819604
0.116983 -0.248927 0.195162 0.521856 -0.633816 0.570915
-0.194955 -0.190172 0.0950239 0.608051 0.773081 0.180608
0.00883123 -0.123796 -0.242659 -0.094306 0.121809 0.988063
0.0676809 -0.266648 0.104883 0.0248948 -0.941646 -0.335682
-0.0185991 -0.115428 -0.243022 0.12775 0.135408 0.982519
0.0968724 -0.0713191 0.129971 0.0959504 0.111648 0.989105
0.120154 0.390363 0.0962268 0.293574 0.931284 0.215694
0.238981 -0.111764 0.0127953 0.780383 -0.525992 -0.338135
-0.211211 -0.158582 0.0591296 0.611458 0.739091 0.282602
-0.0054439 0.113557 0.334469 0.407744 -0.693676 -0.593766
0.152749 -0.196323 0.178721 0.755291 -0.177053 0.631021
0.154942 -0.244738 0.161949 -0.521476 0.849909 -0.0756173
-0.0238505 0.359873 0.182013 -0.0642878 -0.808482 -0.584999
-0.124385 0.389733 0.115275 0.147479 -0.988784 -0.023588
-0.0152417 -0.134664 -0.242445 0.152252 0.109683 0.982237
0.199583 -0.0240215 0.193332 0.753216 -0.450244 0.479528
0.160551 -0.227649 0.163695 -0.619256 0.766687 -0.169448
-0.132345 -0.23338 0.186531 -0.66209 -0.362778 0.655767
-0.195701 -0.134131 -0.00749564 -0.703934 -0.650607 -0.284935
0.160852 -0.193288 -0.0230914 -0.943091 0.330055 0.0405309
-0.0143168 -0.0473517 0.232819 -0.0570756 0.924841 -0.376046
0.224499 -0.116646 -0.000755729 0.727987 -0.557631 -0.398852
-0.106618 -0.248707 0.193824 -0.457575 -0.826219 0.328615
-0.154652 -0.180797 0.160112 0.586905 0.157021 -0.794284
-0.195346 -0.0203967 0.198684 0.630277 0.426623 -0.648648
0.0156848 -0.109043 -0.24427 -0.13427 0.199432 0.970669
0.147737 -0.229981 0.188944 0.72954 -0.285295 0.621593
0.0807157 -0.198193 0.227398 -0.338343 0.295078 -0.893562
-0.190446 -0.201266 0.116794 0.614999 0.773132 0.15506
0.0182623 -0.14078 -0.240889 -0.151656 -0.00274852 0.988429
0.0358273 -0.119061 -0.238022 -0.295024 0.269928 0.916569
0.106927 -0.220639 0.217456 -0.509753 0.158832 -0.845532
-0.153297 -0.237447 0.159999 0.653045 0.745891 -0.131068
0.180203 0.265813 0.156151 0.206617 -0.0145544 -0.978314
-0.0309254 -0.105739 -0.24165 0.165306 0.29623 0.940703
-0.202113 -0.00607524 0.198147 0.69919 0.417969 -0.58003
-0.00257077 -0.0969187 -0.248018 0.0388227 0.300195 0.953088
0.251992 -0.0986627 0.0193049 0.793015 -0.504586 -0.341351
0.212934 -0.116793 -0.0142031 0.737878 -0.563364 -0.371694
0.174333 -0.194058 0.149558 0.790888 -0.372817 0.485288
-0.0929556 -0.21891 0.211479 0.659988 0.0236539 -0.750903
-0.000729094 0.302219 0.228752 0.028924 0.468868 0.882794
0.17175 -0.16754 0.154708 0.732817 -0.0744178 0.676344
0.182069 0.350265 0.107795 0.6961 0.701683 0.151941
0.164077 -0.191877 -0.0411349 -0.960058 0.279762 -0.00463587
0.246551 -0.0893147 0.0033982 0.796325 -0.486744 -0.359092
0.245933 -0.128049 0.0541122 0.781619 -0.569709 -0.253975
0.226706 0.115993 0.193229 0.780797 0.38227 0.494193
0.0870432 -0.254521 0.203252 0.357924 -0.608081 0.70861
0.0491437 -0.102853 -0.235731 -0.355038 0.244737 0.902248
-0.22435 -0.148529 0.052838 -0.689013 -0.674751 -0.264521
-0.171653 -0.171894 0.157636 0.711998 0.18456 -0.677493
0.0479827 -0.141112 -0.232951 -0.393301 -0.128219 0.910425
0.146387 -0.227206 -9.27656e-05 -0.898464 0.315997 -0.304808
0.00684257 -0.0461907 0.188578 0.105727 0.849401 -0.517049
-0.2296 -0.109443 0.0129533 0.806053 0.512331 0.296303
-0.204322 -0.116369 -0.0216213 -0.747833 -0.596157 -0.292135
0.0401499 -0.0511266 0.182852 0.179674 0.807858 -0.561322
-0.0818813 -0.256217 0.19951 -0.323179 -0.79798 0.508707
0.0163477 0.122819 0.321976 0.444146 0.685383 0.577047
-0.0489679 -0.12527 -0.231826 0.425122 0.103386 0.899212
0.166555 0.427283 0.269663 -0.578128 0.733757 -0.356886
-0.189874 -0.153029 0.137294 0.90629 -0.234352 -0.351734
0.00623518 -0.0441293 0.215897 -0.0394949 0.924864 -0.378242
-0.0639973 -0.27061 0.190054 -0.243419 -0.918334 0.312107
-0.219204 -0.110687 -0.00762885 0.771013 0.542596 0.333358
-0.0528581 -0.107939 -0.232083 0.394394 0.277892 0.875916
0.0594343 -0.132124 -0.226534 -0.415926 -0.0680479 0.906849
-0.16782 -0.161621 -0.0242003 -0.771576 -0.620097 -0.141949
0.166931 -0.152535 -0.0787939 -0.90223 0.378014 0.207572
0.0728881 -0.267448 0.195202 0.249696 -0.9088 0.334268
-0.170516 -0.141761 -0.083178 -0.881982 -0.404729 -0.241461
0.211429 -0.00736296 0.195978 0.707461 -0.404567 0.579503
0.172749 -0.132429 -0.0757791 -0.887846 0.390322 0.243675
-0.0269076 -0.263777 0.108305 -0.213745 -0.940031 -0.265811
0.233569 -0.0957082 -0.0147718 0.770359 -0.499227 -0.396635
-0.0834855 -0.0613598 0.17224 0.16124 -0.948707 0.27195
-0.175609 -0.203451 0.152163 -0.76424 -0.620914 0.174368
-0.0607496 -0.137079 -0.225673 0.490107 -0.0812203 0.86787
-0.221077 0.0309863 0.207069 0.753412 0.349998 -0.556661
-0.120745 0.431818 0.287639 0.672859 0.63208 -0.384364
-0.0300287 -0.268845 0.140368 0.176432 0.940803 0.289414
0.210248 -0.18813 0.109251 -0.608818 0.782286 0.131792
0.00648871 0.125887 0.326274 -0.0331593 0.74956 0.661106
-0.155197 -0.179106 -0.0101534 -0.706093 -0.694902 -0.136176
-0.165503 -0.169461 -0.0300573 -0.857029 -0.509073 -0.0796665
0.0322705 -0.262303 0.125084 0.147529 -0.959771 -0.238905
-0.118902 0.427848 0.298041 0.672859 0.63208 -0.384364
-0.172864 -0.130982 -0.0836177 -0.881982 -0.404729 -0.241461
0.0838801 -0.243282 0.216357 0.338251 -0.577229 0.743231
0.0707943 -0.11516 -0.220306 -0.381159 0.161643 0.910269
-0.191732 0.295579 0.192054 0.841597 -0.0793199 -0.53425
-0.23526 -0.128582 0.0464438 0.817388 0.546338 0.182735
-0.23796 -0.0893247 0.00358041 0.799136 0.506973 0.323049
-0.161127 -0.157142 -0.100291 -0.957679 -0.0221033 -0.286988
0.229937 -0.157355 0.0817711 -0.748496 0.658137 0.0813048
-0.00867087 -0.0456318 0.195556 -0.00098962 0.898995 -0.437957
0.257451 -0.0738678 0.00606643 0.837271 -0.430768 -0.336772
0.207763 -0.153408 0.119971 0.811609 -0.140176 0.567135
-0.166473 -0.161402 -0.087227 -0.917872 -0.359665 -0.167787
-0.155892 -0.153336 -0.120846 -0.91947 0.0507744 -0.389868
0.0585333 -0.27698 0.184067 0.246452 -0.928361 0.278223
-0.0745871 -0.242381 0.211687 -0.31777 -0.580851 0.749423
-0.245919 -0.0947732 0.0164482 0.815284 0.500704 0.290875
-0.118195 -0.244628 0.0225322 0.790155 0.394267 -0.469264
0.162216 0.37782 0.0798996 0.549685 0.802301 0.232721
-0.204381 0.326484 0.149675 -0.853117 0.458319 0.249268
-0.176866 -0.116524 -0.0722841 -0.855062 -0.473335 -0.211716
0.165509 -0.176285 -0.0898497 -0.994741 0.0677666 0.0768006
0.0223603 -0.266251 0.134883 0.158589 -0.970578 -0.181185
0.228569 0.0262714 0.199384 0.735636 -0.361303 0.572975
-0.159656 -0.136756 -0.113019 -0.890949 -0.161899 -0.424262
-0.23132 0.0576097 0.206363 0.846609 0.125451 -0.517218
-0.0814278 -0.104698 -0.21531 0.462459 0.207703 0.861969
-0.229858 -0.0857265 -0.0205788 -0.82318 -0.472546 -0.314761
-0.00989397 -0.27224 0.126062 -0.178435 -0.935467 -0.305063
0.042857 -0.282702 0.151383 0.169061 -0.982443 -0.0788946
-0.025661 -0.281196 0.178345 -0.0999999 -0.967771 0.231127
-0.0867019 -0.116142 -0.208603 0.447897 0.176755 0.876439
0.0560575 -0.240482 0.220435 0.0724877 -0.547886 0.833407
0.0529958 -0.0519894 0.1994 0.11064 0.895874 -0.430311
0.221437 -0.160532 0.10629 -0.881598 0.266741 -0.389402
0.0516582 0.395396 0.117595 0.0749903 0.90355 0.421869
0.0731381 -0.0972299 -0.224219 -0.387451 0.172236 0.905658
-0.224386 -0.155987 0.0866905 -0.787638 -0.610193 -0.0853911
0.0244013 -0.175194 -0.249873 -0.122833 -0.210264 0.969898
-0.0564434 -0.258766 0.208846 -0.224006 -0.852332 0.472601
-0.0586534 -0.242054 0.218113 0.167829 0.474987 -0.863841
0.164423 -0.144423 -0.0982177 -0.923785 0.205268 0.323244
0.263983 -0.0548629 0.0125836 0.942642 -0.291345 -0.162925
0.246831 -0.129062 0.0771991 0.867768 -0.487531 -0.0963991
0.167652 -0.134117 -0.0941758 -0.853409 0.349117 0.387053
-0.171764 -0.115922 -0.0954478 -0.865749 -0.370695 -0.33625
0.167956 -0.203197 -0.0807987 -0.999776 0.0164994 0.0132758
-0.121599 -0.131921 -0.169013 -0.800312 0.051037 -0.597408
-0.161684 -0.124019 -0.113195 -0.901632 -0.176641 -0.394788
0.252567 -0.0414564 -0.0309197 0.882502 -0.373806 -0.28541
0.159922 -0.173048 -0.108706 -0.983427 -0.00277293 0.181285
0.256983 -0.0406373 -0.015702 0.87885 -0.368784 -0.302691
-0.0953577 -0.127578 -0.198431 0.641947 0.0464948 0.765338
0.216253 -0.0656725 0.116919 0.567457 -0.402572 0.718281
-0.0951629 -0.148993 -0.200293 -0.665237 0.0289894 -0.74607
-0.00503756 -0.275942 0.194948 -0.0646366 -0.960099 0.272089
-0.163185 -0.193175 -0.123742 0.946133 -0.153854 0.28489
0.0107102 -0.284346 0.171932 -0.0153272 -0.994935 0.0993446
-0.246715 -0.110282 0.0572435 0.870616 0.471631 0.139969
0.237033 0.0547452 0.200496 0.832013 -0.141668 0.536362
-0.22011 -0.146865 0.105021 0.829303 0.286651 -0.479675
-0.127039 -0.161326 -0.172035 -0.799944 0.263101 -0.539321
-0.168439 -0.202102 -0.104497 0.980608 -0.132298 0.144585
0.214004 -0.0810356 -0.050665 -0.792145 0.48099 0.375707
-0.251511 -0.0608989 0.00660111 0.931416 0.354154 0.0838937
0.267559 -0.0471887 0.0219551 0.961993 -0.244073 -0.122468
-0.156297 -0.193935 -0.0362077 -0.957991 -0.268908 0.0997104
-0.215862 -0.173306 0.116574 -0.739912 -0.672455 0.018283
-0.244187 0.146545 0.135353 -0.790068 0.286261 0.542077
0.0419069 -0.26181 0.212589 0.0510037 -0.699648 0.712665
-0.154449 -0.189749 -0.144433 0.855666 -0.21318 0.471583
0.130436 0.40369 0.263 0.904274 -0.421372 0.0688051
-0.0756407 -0.176753 -0.230666 0.462935 -0.266908 0.845252
-0.216373 -0.0742147 -0.0541506 0.813615 0.491479 0.31061
0.00304389 -0.236375 0.220712 -0.0344956 -0.47713 0.878156
0.127644 0.402971 0.275727 0.774467 -0.549176 0.314018
-0.119949 -0.116854 -0.173944 -0.776277 -0.0649178 -0.62704
-0.206324 -0.0627242 0.112032 -0.596359 -0.452099 0.663296
-0.247489 -0.0484864 -0.0169454 0.862386 0.415976 0.288538
0.0836552 -0.291059 0.0605367 -0.572465 0.628454 -0.526621
0.00125673 -0.231413 0.0882245 0.0241068 -0.727785 -0.685381
0.15787 -0.134015 -0.117286 -0.903469 0.146032 0.403011
0.241983 -0.0387524 -0.0533126 -0.873737 0.375524 0.309137
0.14422 -0.16005 -0.14397 0.883084 0.111914 -0.455673
-0.0485633 -0.185586 -0.247424 -0.27076 0.232216 -0.934219
0.0936437 -0.142076 -0.20062 -0.581192 -0.059492 0.811589
-0.210413 0.283261 0.159358 0.825347 0.0046822 -0.564606
0.270582 -0.0417178 0.0380654 0.973534 -0.228304 0.0104187
0.0132007 0.385842 0.134933 0.000138362 -0.856874 -0.515527
-0.1524 0.387579 0.0929641 0.395661 -0.918072 0.0244241
-0.0564082 0.396236 0.118296 0.00284483 -0.911133 -0.412103
0.225995 0.260325 0.133746 -0.665549 -0.251988 -0.702529
0.00169788 -0.221465 0.0900903 -0.0377332 0.637422 0.769591
0.169996 -0.115575 -0.10307 -0.809848 0.39775 0.431208
-0.261311 -0.0485297 0.0251005 0.962322 0.271877 -0.00436213
0.00161546 -0.219596 0.0880079 -0.0377332 0.637422 0.769591
0.210984 0.294556 0.133708 0.886733 0.132683 0.442832
0.163425 -0.198893 -0.128029 -0.930591 -0.174505 0.321788
-0.0997675 0.399234 0.0960178 0.243531 -0.940251 -0.237952
-0.0997236 0.114777 -0.359573 0.359732 0.238776 0.901986
-0.169199 0.376987 0.0929844 -0.49082 0.869598 0.0538046
0.0726399 -0.188944 -0.23563 0.444194 0.261593 -0.85689
-0.119115 -0.102401 -0.180621 -0.750277 -0.121884 -0.649791
0.194744 -0.0851574 -0.0875179 0.815998 -0.481987 -0.319119
-0.257686 -0.022504 -0.0107382 0.955909 0.282637 0.0797184
0.110089 -0.127464 -0.182915 -0.708157 0.116745 0.696337
0.197165 0.34033 0.0762149 -0.742284 -0.639016 -0.201677
0.00914758 0.418347 -0.264832 -0.0126649 -0.793729 0.608139
-0.011855 0.428622 -0.249425 0.072295 -0.841419 0.535525
-0.028249 0.39485 -0.288583 0.133052 -0.701958 0.69968
-0.255583 -0.0211693 -0.0321708 -0.925784 -0.34799 -0.147741
-0.0751489 0.102907 -0.365348 0.322105 0.245319 0.914367
0.00207949 0.384628 -0.300583 -0.0265539 -0.658681 0.751954
0.107393 -0.116225 -0.188503 -0.692953 0.143936 0.706469
-0.140068 -0.201685 -0.180534 0.798774 -0.281377 0.531777
-0.220734 -0.0269111 0.152714 -0.695193 -0.594283 0.404393
-0.107033 0.142175 -0.36133 -0.436267 -0.0636613 -0.897562
0.104546 0.412621 0.0600359 0.300214 0.897657 0.32262
0.136763 0.405241 0.0486185 0.432113 0.842404 0.321922
0.101607 -0.296793 0.0429914 -0.650384 0.606433 -0.457427
-0.111575 -0.198247 -0.208671 0.697842 -0.287351 0.656084
-0.0482725 0.414852 -0.260354 0.190607 -0.774578 0.603074
-0.250705 -0.0179599 -0.0547093 -0.910723 -0.367538 -0.188413
-0.0459216 0.0985144 -0.370835 0.138927 0.235487 0.961897
-0.0704341 0.133889 -0.372814 0.247123 0.0843728 0.965304
0.264951 -0.00297495 -0.0233721 -0.960333 0.240295 0.141491
0.0237681 0.436341 -0.234851 0.0850074 0.857683 -0.507103
-0.213101 0.271047 0.128239 0.946896 0.138455 -0.290203
0.0409469 0.404741 -0.276073 -0.162472 -0.750436 0.640663
-0.145085 0.147936 -0.341167 -0.512983 -0.0307336 -0.857849
-0.0452629 0.434096 -0.232223 0.183877 -0.844277 0.503374
-0.254397 -0.0689411 0.0732519 0.962065 0.256546 -0.0928115
-0.083386 0.0800712 -0.355017 0.292937 0.28258 0.91342
0.0964902 -0.193566 -0.218595 0.594375 0.240813 -0.767286
0.271176 0.290475 -0.141911 0.896515 0.376207 -0.233943
0.21171 0.308066 0.094997 -0.849101 -0.445462 -0.283886
0.0228906 -0.0548332 -0.268678 0.113493 -0.451164 -0.885195
-0.0581144 0.39357 -0.281266 0.225508 -0.727685 0.647782
-0.192157 -0.082008 -0.103788 -0.778298 -0.492 -0.390112
0.0531875 0.423052 -0.247972 -0.217084 -0.794837 0.566665
-0.113646 0.0891046 -0.345634 0.401438 0.244267 0.882712
0.109949 -0.102128 -0.191671 -0.692953 0.143936 0.706469
0.26443 -0.0620519 0.0771626 0.94374 -0.263958 0.199203
-0.0166108 0.356268 -0.320552 0.0814037 -0.573425 0.815204
-0.0245516 0.124962 -0.378144 0.0414329 0.163017 0.985753
0.117907 -0.291407 0.0257568 -0.786121 0.372298 -0.493364
0.123401 -0.183891 -0.186534 -0.797809 -0.252332 0.547567
-0.116039 0.179226 -0.35606 -0.384363 0.0737527 -0.920231
-0.00374038 0.448542 -0.211156 0.0197197 -0.920612 0.389981
0.0194112 0.35368 -0.321753 -0.0684704 -0.553907 0.829758
-0.270962 0.271618 -0.155721 -0.871703 0.404821 -0.276141
0.0417903 0.378909 -0.299837 -0.147675 -0.614806 0.77473
-0.261487 -0.0299506 0.0464127 -0.972293 -0.214193 0.0936344
-0.0068758 -0.205551 -0.262487 0.0263385 0.19021 -0.98139
0.253629 0.140738 0.121481 0.796738 0.338903 0.500353
-0.253969 0.31669 -0.137306 0.825974 -0.508578 0.243137
0.0122484 0.105704 -0.375156 -0.0305161 0.182644 0.982705
0.111229 0.159249 -0.357118 0.364477 0.0276627 -0.930802
-0.155634 0.108635 -0.327779 0.532839 0.204873 0.821042
0.166027 0.395488 0.0358705 0.534977 0.789979 0.299553
0.236319 0.349543 -0.145923 0.770373 0.569661 -0.286376
0.0435606 0.444047 -0.212007 0.164968 0.90018 -0.403064
0.258857 0.326796 -0.118013 0.862919 0.485786 -0.139222
-0.262388 0.0561303 -0.175015 -0.875163 -0.322162 -0.360974
0.248483 0.317559 -0.167497 -0.816137 -0.498729 0.291874
-0.27233 0.0560971 -0.145156 -0.911128 -0.334262 -0.241071
0.0483534 0.142391 -0.37644 -0.161535 0.0604069 0.985016
0.264309 0.0132353 -0.0530198 -0.932471 0.31489 0.177038
-0.285107 0.252114 -0.123354 0.932716 -0.282204 0.224505
0.00846945 0.0886462 -0.370842 -0.0216956 0.226198 0.97384
-0.00873068 -0.0534375 -0.275742 0.00228662 -0.50982 -0.860278
-0.274843 0.28579 -0.109313 0.874796 -0.453531 0.170414
-0.00955935 0.334019 -0.333297 -0.0692125 0.47064 -0.879606
-0.060878 0.359031 -0.308939 0.239836 -0.570779 0.785296
-0.0486479 0.0761838 -0.36185 0.138927 0.235487 0.961897
0.208593 0.380369 -0.146522 -0.693316 -0.67316 0.257231
0.281136 0.262698 -0.139117 0.927883 0.292123 -0.231726
0.0759989 0.119018 -0.368374 -0.293009 0.123675 0.948077
-0.251587 0.299745 -0.172501 -0.828049 0.471046 -0.304056
-0.273213 0.0445266 -0.109533 -0.92853 -0.338901 -0.151584
-0.242584 0.339811 -0.114498 0.80192 -0.575015 0.162119
-0.264121 0.0914425 -0.195725 0.892684 0.218086 0.394402
-0.0721725 -0.30178 0.0482835 -0.48865 -0.644574 0.588001
-0.275767 0.247401 -0.164461 0.920533 -0.273379 0.279076
0.0833902 0.184584 -0.365992 0.278048 0.061255 -0.958612
-0.167812 0.153188 -0.323432 -0.595867 -0.00457261 -0.80307
0.118862 0.124457 -0.350951 0.454587 -0.0815409 -0.886962
-0.285196 0.215058 -0.158062 0.948054 -0.141168 0.285071
-0.260177 0.0112334 -0.110011 -0.90169 -0.400719 -0.162419
0.232285 0.36719 -0.105534 -0.777199 -0.623765 0.0829392
0.0363095 0.324956 -0.335579 -0.15623 -0.468439 0.869573
0.256815 0.00510248 -0.109589 -0.867072 0.442877 0.228137
-0.246056 0.056442 -0.207116 -0.827994 -0.307733 -0.46875
-0.0387014 -0.0537233 -0.27074 0.251393 0.51845 0.817319
-0.148845 0.183799 -0.336794 -0.531474 0.0401671 -0.846122
-0.277929 0.094119 -0.164321 0.92423 0.203837 0.322877
-0.0899948 0.430139 -0.209549 0.330006 -0.840626 0.42947
0.195227 0.405731 -0.0795445 0.633755 0.773492 -0.00803116
0.20253 0.396714 -0.109671 0.679902 0.710699 -0.180664
-0.0998838 0.402787 -0.245647 0.398125 -0.719674 0.568829
-0.0843816 0.189744 -0.365949 -0.253029 0.080911 -0.964069
0.163062 0.425292 -0.11004 0.511265 0.8515 -0.116429
0.276224 0.295684 -0.0968458 -0.918512 -0.389415 0.0684909
0.10686 0.204239 -0.355632 0.392203 0.107584 -0.913566
0.267971 0.274107 -0.168278 0.887954 0.37231 -0.270041
-0.176792 0.116222 -0.313008 0.603756 0.133336 0.785939
-0.288996 0.237642 -0.113521 0.968151 -0.207537 0.140046
0.179964 -0.0733574 -0.13021 0.728258 -0.451995 -0.515112
0.271468 0.016715 -0.00969785 -0.968159 0.235415 0.0851383
0.0718318 0.100513 -0.364687 -0.288563 0.243719 0.925923
-0.201034 0.376991 -0.151059 -0.69678 0.662523 -0.274884
-0.119482 0.40732 -0.221934 0.44151 -0.765724 0.467693
0.172896 0.407324 -0.156324 0.599596 0.751898 -0.274107
0.233717 -0.0288814 -0.10559 -0.823073 0.489683 0.287684
0.0626597 0.430315 0.057607 0.20465 0.904121 0.375078
-0.0446856 0.176127 -0.37554 -0.164208 0.0791259 -0.983247
0.104694 0.0981436 -0.352425 -0.36556 0.226258 0.90287
0.0374724 0.170322 -0.375761 -0.12974 -0.043691 0.990585
-0.230645 -0.0360352 -0.100875 -0.822645 -0.507559 -0.256203
-0.172551 0.399652 -0.157702 -0.623014 0.728489 -0.284882
0.195967 0.372222 -0.185928 -0.660557 -0.639716 0.392972
0.223607 0.379412 -0.0716963 -0.715301 -0.698779 -0.00723587
0.288182 0.252998 -0.110664 0.964834 0.234498 -0.118767
-0.214925 0.375884 -0.0986875 -0.720338 0.686619 -0.0983259
0.194109 0.379881 0.0256569 0.656949 0.695458 0.291131
-0.0463835 0.455029 -0.176985 -0.198527 0.94294 -0.267303
-0.274661 0.124632 -0.187555 0.911576 0.0953713 0.399917
-0.152131 0.419464 -0.140425 -0.53894 0.824338 -0.173235
-0.283498 0.168568 -0.173726 0.93677 -0.00100331 0.349944
0.165549 0.423772 -0.0423677 0.524555 0.841469 0.129507
-0.265759 0.0123611 -0.0202294 -0.957642 -0.280674 -0.0643691
-0.142606 0.411947 -0.183493 -0.503553 0.802111 -0.321018
0.262988 0.055244 -0.166637 -0.88032 0.326774 0.343884
-0.187998 0.400778 -0.0981604 -0.652501 0.74728 -0.125756
0.285908 0.224083 -0.151631 0.948079 0.132735 -0.289013
0.0679382 0.34113 -0.318272 -0.244371 -0.512576 0.823134
-0.00843278 0.46105 -0.171673 -0.0353488 0.967118 -0.25186
0.269985 0.0486074 -0.136243 -0.907732 0.336094 0.251123
-0.167168 0.385546 -0.198809 -0.614985 0.679952 -0.399323
0.137299 0.428643 -0.00174713 0.421114 0.872632 0.247337
0.0287273 0.46035 -0.168622 0.12309 0.957947 -0.259202
0.149052 0.159796 -0.337538 0.546379 0.00770323 -0.837503
0.158331 0.430273 -0.0770529 0.510914 0.859505 0.0147349
0.101939 0.412359 -0.233309 -0.369479 -0.743771 0.557037
0.174951 0.410894 -0.0156636 0.541483 0.808436 0.230712
0.0599242 0.455427 -0.165863 0.215433 0.941767 -0.258194
0.12636 0.206755 -0.344849 0.423402 0.150408 -0.893369
-0.109321 0.433424 -0.17692 -0.385764 0.876388 -0.288323
-0.194485 0.359658 0.0808876 -0.70496 0.680108 0.201207
-0.258673 0.267677 -0.189319 -0.850994 0.344884 -0.396062
-0.119703 0.217364 -0.347426 -0.402529 0.170253 -0.899435
-0.153032 0.425014 -0.0939797 -0.504617 0.860989 -0.0637149
-0.0544281 0.31809 -0.334829 0.208601 -0.440769 0.873046
0.203187 0.39429 -0.031091 0.69323 0.703371 0.157166
-0.287863 0.130818 -0.149597 0.953455 0.117951 0.27751
-0.0231411 0.29477 -0.349288 -0.0695742 0.357769 -0.931215
-0.205608 0.348438 -0.194608 -0.714274 0.573624 -0.40096
0.017477 0.285463 -0.35289 -0.0670907 -0.324976 0.943339
-0.122022 0.370579 -0.264463 0.451567 -0.626641 0.635145
0.02445 0.466977 -0.034109 0.0722623 0.97971 0.186938
0.106213 0.429039 -0.198836 -0.376387 -0.850419 0.367588
0.0236177 0.460013 -0.000562335 -0.101133 -0.958605 -0.266175
0.27913 0.059451 -0.109991 0.940293 -0.298467 -0.163604
-0.0134031 0.467334 -0.0370097 -0.0821236 0.982701 0.165993
-0.287596 0.101184 -0.13291 0.954411 0.190355 0.229925
-0.270465 0.223057 -0.190355 0.899779 -0.141299 0.412834
0.14153 0.426974 -0.157708 -0.465811 -0.849193 0.248781
0.256224 0.276781 -0.190752 0.847147 0.321995 -0.422683
0.225076 0.321337 -0.203748 0.755468 0.470788 -0.455661
0.0639142 0.272342 -0.350149 0.223653 0.316075 -0.921996
-0.248385 0.124472 -0.233585 0.821892 0.11578 0.557753
0.0777674 0.298552 -0.335733 -0.243594 -0.401907 0.882685
0.0636563 0.453608 -0.00105891 -0.222645 -0.937947 -0.265866
-0.0392339 0.467453 -0.0653302 -0.156863 0.986175 0.0534045
-0.295065 0.192468 -0.122084 0.966798 -0.103812 0.233506
0.0130341 0.471243 -0.0704104 0.00946671 0.999205 0.038719
0.252533 0.342075 -0.072167 0.831046 0.553471 0.0550758
0.123573 0.446238 -0.0803076 -0.37942 -0.924605 0.0338608
0.10499 0.44131 -0.166558 -0.369733 -0.891741 0.260951
-0.0110405 0.470503 -0.106607 -0.0585372 0.994992 -0.0810193
0.026919 0.468711 -0.118304 0.118053 0.989775 -0.0800588
-0.24634 0.0102059 -0.159041 -0.82826 -0.469431 -0.305973
-0.112577 0.443603 -0.122436 -0.416728 0.897505 -0.144301
-0.270934 0.03593 -0.0572213 -0.932218 -0.336266 -0.13377
0.04625 0.0663939 -0.357455 -0.178587 0.418724 0.89038
0.0723591 0.462437 -0.0916283 0.239099 0.970308 -0.0365246
0.109203 0.446347 -0.0254098 -0.30602 -0.926204 -0.220221
0.0499077 0.228876 -0.364868 0.170765 0.195508 -0.96572
-0.231317 0.358365 -0.0764894 0.773085 -0.631695 0.0574617
0.0262607 0.425726 0.0752167 0.0979751 0.907217 0.409094
0.142034 0.408143 -0.201113 -0.50829 -0.752816 0.418221
0.159633 0.112018 -0.323588 0.573027 -0.205153 -0.793444
0.281158 0.169817 -0.172749 0.947146 -0.0103563 -0.320636
0.100104 0.253253 -0.344314 0.341837 0.290825 -0.893626
0.254128 0.085769 -0.206294 -0.840612 0.284295 0.46103
0.275824 0.0952762 -0.166217 0.907213 -0.229548 -0.352522
-0.0226859 0.460398 -0.00590531 -0.090844 0.963254 0.252763
0.272777 0.0427044 -0.0462619 -0.95751 0.259688 0.125445
-0.286701 0.0866854 -0.100267 0.966618 0.235637 0.100626
0.105568 0.378235 -0.270827 -0.404877 -0.659588 0.63326
-0.0615113 0.46209 -0.118162 -0.229343 0.969399 -0.0875608
0.0601386 0.463726 -0.0484782 -0.215098 -0.970472 -0.109166
-0.0392686 -0.220128 -0.26552 0.203356 -0.249939 0.946666
0.171541 -0.262087 -0.0619149 -0.987844 0.0746854 -0.136333
0.240466 -0.000765547 -0.149445 -0.801459 0.496682 0.333124
0.224948 -0.0290825 -0.131363 0.796958 -0.51543 -0.314946
0.272958 0.230022 -0.182701 0.90871 0.165484 -0.383224
-0.231428 0.296095 -0.209867 -0.757994 0.452536 -0.469741
-0.222773 0.0786704 -0.252714 -0.786861 -0.242086 -0.567666
-0.239942 -0.0151721 -0.129615 -0.860697 -0.458245 -0.221836
-0.252168 0.328272 -0.0701931 0.851589 -0.522748 0.0391332
-0.243643 0.0376157 0.141551 0.915139 0.159878 -0.370081
0.237825 0.0376573 -0.199081 0.787615 -0.422168 -0.448817
0.0849018 0.0699946 -0.34873 -0.284459 0.402381 0.870157
-0.0977985 0.314599 -0.320199 0.387793 -0.475165 0.789832
0.255882 -0.0198924 0.104766 -0.798759 0.414929 -0.435681
-0.142895 0.348131 -0.267938 -0.523083 0.557616 -0.644553
-0.199676 0.090611 -0.284698 -0.66132 -0.25524 -0.705343
-0.17372 -0.247117 -0.150382 -0.908658 0.199061 -0.367036
-0.170325 0.359226 -0.230546 0.615206 -0.569535 0.545115
-0.215435 0.119376 -0.275076 -0.754375 -0.111592 -0.64689
-0.0503478 0.260994 -0.356768 -0.179459 0.274841 -0.944593
-0.0820717 0.456669 -0.0648911 0.298538 -0.954035 -0.0263024
0.16435 -0.231619 -0.160582 -0.882083 -0.203306 0.424966
-0.0902372 -0.228193 -0.243699 -0.532685 0.263482 -0.804254
-0.285415 0.254499 -0.074559 0.956587 -0.291415 -0.00433759
0.1541 0.382165 -0.226795 -0.522187 -0.682729 0.511079
-0.0584048 0.0463038 -0.343838 0.23077 0.457634 0.858671
